NaN NaN NaN NaN NaN NaN NaN NaN NaN NaN NaN NaN NaN NaN NaN NaN NaN NaN NaN NaN NaN NaN NaN NaN 38.2148485471985353 40.732842863086652585 41.857725361949611909 41.657999999996270901 41.664998999999994567 41.578499749999998869 41.537999999999996703 41.523666333339228629 41.519499500000002001 41.460000250000000221 41.425499750001307575 41.313333000000000084 41.235250499999999363 41.044666499999998166 41.248799800000000459 41.090333333333326493 40.946332833333336509 40.629998999999997977 39.917000000000001592 39.404998999999996556 39.426001000000006513 39.36250150011361626 39.765251249999998606 39.94749999999999801 40.15133300000000105 40.438998999999995476 40.649665999999996302 40.731500000000004036 40.724997999999999365 40.71266700000000327 40.663499749999999722 40.620000333333337039 40.612498999999999683 40.585501000000000715 40.563999999999992951 40.567667666666665127 40.540750750000000835 40.556399399999996547 40.57899900000000315 40.581333333322938017 40.474200600000003192 40.449666333333333057 40.562999750000003019 40.732334333333334087 41.241250250000000221 41.842998999999998944 41.984332999999999458 41.68079980000000262 41.204000500000006468 40.610998999999999626 40.150333333333328767 39.926333999999997104 39.834332666666661282 39.975667333333326781 40.34100000000000108 40.924000999999996964 41.502997999999998058 41.490002000000004045 40.883999750113623861 40.218666000000006022 39.813999333333335073 39.683334333333334598 39.710750499999996066 39.538332333333336521 39.633666999999995539 39.917499500000005241 40.208799799999994207 40.224499500000000296 40.075249749999997562 39.869999999999997442 39.722000333333333799 39.611333000000001903 39.531499499999995351 39.43850100000000225 39.467999999999996419 39.248499666666667451 39.0913340000831937 39.021666333333335785 39.024248999999997523 38.867500499999998453 38.742500500000005559 38.625333333333337293 38.628334333333334882 38.609666333333336752 38.514499999999998181 38.530000499999999874 38.689500750000000551 38.888999999996279655 39.067599399999998866 39.488599400000005346 38.884999999966467499 38.83766700000000327 38.741666000000002157 38.629000500000003626 38.566749749999999608 38.546999999999997044 39.077000750000003393 38.291547849069743847 37.886068183731509862 37.477149124030937344 37.064790669901860554 NaN NaN NaN NaN NaN NaN NaN NaN NaN NaN NaN
NaN NaN NaN NaN NaN NaN NaN NaN NaN NaN NaN NaN NaN NaN NaN NaN NaN NaN NaN NaN NaN NaN NaN 37.206987458647788003 39.636595673764134062 42.119856614195697375 41.643750249999996527 41.647666666666673052 41.611000333333329593 41.57933433333209905 41.536999500000000296 41.51899966666666586 41.521332999999998492 41.448000000000000398 41.349999666666668929 41.234600000000000364 41.096000750034590965 41.09099999999143904 41.178999750000002678 40.991000000000006764 40.54700000000000415 40.418250250163417547 39.948000000000000398 39.454000749948512805 39.397333666639674732 39.613668000055433538 39.793998999999999455 40.052399400045615607 40.305499750000002734 40.566000750000000608 40.766666333333326122 40.750999000000000194 40.717998500000000206 40.66200049995283905 40.650000000004318679 40.621499999999997499 40.57349999999999568 40.540499750000002166 40.525999333333331265 40.495668000000001996 40.507000000049742994 40.537500500011475424 40.539666666666668959 40.524332666666673219 40.435624625000002652 40.379499000095584904 40.535999000053401176 40.629333333333327971 41.186250749999999243 41.856749499999992281 41.96200000013389797 41.749999999916589388 41.244999749999998073 40.619998999999999967 40.208333333169910873 39.835999000000001047 39.826000333333333003 40.037998000000001753 40.418332333333331974 40.993649824967292261 41.445998999974563048 41.199666000000000565 40.676999333333334619 40.117500499999998453 39.738749749999996652 39.61299900003766794 39.695751000025218502 39.553001000097687267 39.500500000026455893 39.692001500000003489 39.899332666666666114 40.039499500000005128 40.051666333333336922 39.839667000049210799 39.697200199999997494 39.551999999999999602 39.540000999999996623 39.427250000000000796 39.353999999999999204 39.313250500010020971 39.097667666692352384 39.086749249999996891 38.993333000074763106 38.755332666707488443 38.65450100008229839 38.618499500043455441 38.566665666666665402 38.554000000000002046 38.521332833333332246 38.604500999999999067 38.813499499944150273 38.897399199999377117 39.590249999999997499 38.943500499999998965 38.81875025000000079 38.792999333333334278 38.703499750000005974 38.595001000000003444 38.507000000044143917 38.867332333333337147 38.492127631139922528 38.056893527594915838 37.653388273553396459 37.246443625180816639 NaN NaN NaN NaN NaN NaN NaN NaN NaN NaN NaN NaN
NaN NaN NaN NaN NaN NaN NaN NaN NaN NaN NaN NaN NaN NaN NaN NaN NaN NaN NaN NaN NaN NaN NaN 38.609815234516126736 41.004690074095741181 41.677250749999998902 41.614750000000000796 41.606749499999999387 41.579200000000000159 41.547001000017715455 41.514333000000000595 41.517000000000003013 41.472333333333331495 41.422667333397825473 41.30125024999999539 41.137000000000000455 41.02666600019392007 41.293599399999997956 41.184999250045478902 40.920999499999993532 40.567000999999997646 40.213999750101457664 39.609249249999997744 39.402333499999997457 39.395332333333328734 39.772249499999993816 39.983001999999999043 40.227750000000000341 40.472999500000000239 40.717999999949689993 40.72483299999999673 40.7184992500000007 40.654501000053990367 40.656332666666664011 40.610500000000001819 40.613800400000002355 40.556500999999997248 40.520000666692617131 40.506333666666670013 40.496332666666667421 40.462199399999995819 40.485499499999995976 40.442250250000000733 40.441400200000003906 40.381250500000000159 40.354499500012245505 40.408750499999996464 40.573750750000002085 40.823002000000002454 41.460500500114449096 41.838999000000001161 41.745500499999998567 41.419666333333339026 40.868000000000002103 40.451999999811597775 40.075665666666672848 39.977331666525707021 40.214667249936731253 40.62433366666666501 41.097832833333335145 41.283998800000006213 41.008001000000000147 40.448000666675419268 39.981251749999998424 39.65049983333333472 39.593000749999994525 39.640999600002331249 39.435999666666667451 39.411500000000003752 39.416000250004451289 39.526998499999997705 39.650666666870357346 39.673799999999999955 39.684249750151259661 39.671499499999995919 39.487000000036012182 39.524667333333333374 39.442200599999999611 39.290998999999999342 39.26099999999999568 39.262001000286922192 38.901001000084924897 38.865750500000004308 38.70016650000000169 38.625332999999997696 38.57966633333332851 38.555333333409208763 38.486748500053998612 38.598998999999999171 38.71883349999999524 38.889666333333330783 39.239750000000000796 39.721750499999998851 38.970599400000004664 38.813749250054407014 38.729500000000001592 38.618750500000004422 38.535999500000002627 38.517748750000002644 39.04649924999999655 38.223770048669877042 37.825678600383334071 37.424147757704048445 37.019177520726884723 NaN NaN NaN NaN NaN NaN NaN NaN NaN NaN NaN NaN
NaN NaN NaN NaN NaN NaN NaN NaN NaN NaN NaN NaN NaN NaN NaN NaN NaN NaN NaN NaN NaN NaN 37.65250154552150974 39.958990284250553771 42.319131748748937127 41.616332999999997355 41.650002000000000635 41.607401400000000535 41.587499999982952659 41.521000000047990852 41.485750250046294241 41.449333333333335361 41.428666333333332261 41.379666666712111578 41.237400000113559884 41.07300033333333289 41.275833666666663646 41.167666333364671516 40.814998500000001513 40.639499499999999443 40.252000000000002444 40.025664999999996496 39.583666499999999644 39.490800600000000031 39.390750999999994519 39.887750750000002142 40.063499499999998932 40.352333333220030909 40.587334000012667445 40.74199974999999796 40.731600199999995482 40.721668333333333578 40.636750249995479578 40.6509989999676975 40.611499999999999488 40.592749749999995856 40.525999249999998142 40.471999200000006169 40.457000999999998214 40.435000000091292804 40.433500500000000955 40.414999666666666656 40.364800199999997687 40.339666000040971028 40.357999333333332004 40.320333000000005086 40.381999999977658433 40.435998999999995362 40.756999999999997897 41.327750250000001131 41.77524949998021242 41.749000999999999806 41.590749499831822789 41.069999333333335301 40.711665666481877679 40.342998999999998944 40.425333666666666943 40.47800099999999901 40.832000666484546514 41.061999800000002381 41.05199924999999439 40.829999999999998295 40.31200033333333721 39.956666333333338059 39.685000333333334765 39.571499750000000972 39.57139980000000179 39.416666666666664298 39.303499500000000921 39.380501000000002421 39.330750250190995132 39.381999999999997897 39.401001000000000829 39.406750750000000494 39.461876000205165838 39.354000000036329254 39.305000499999998453 39.343667333333335989 39.159750000000002501 39.192000000000000171 39.00366699992498809 38.912500500037658924 38.722000000000001307 38.626665666666667676 38.60599900006845786 38.558333000055398543 38.493666333333329987 38.501166500000003623 38.662333333263376289 38.814500499985001625 38.874250500000002262 39.694999500000001547 39.478665666666664436 38.806499500000001035 38.760498749999996448 38.647999749999996766 38.57574950000000058 38.566332666666667706 38.963999499968416274 38.386697747050810392 37.994020104522853387 37.597903067568509528 37.198346636315598346 NaN NaN NaN NaN NaN NaN NaN NaN NaN NaN NaN NaN NaN
NaN NaN NaN NaN NaN NaN NaN NaN NaN NaN NaN NaN NaN NaN NaN NaN NaN NaN NaN NaN NaN NaN 38.982757244486293757 41.254512608215193836 41.711548951272263253 41.562201000000001727 41.534999999999996589 41.571333666656656192 41.560333000048011343 41.517000250063389899 41.431600000013112606 41.4230010000052431 41.35150033338737785 41.284999499999997852 41.143250250000001245 40.959332666566240277 41.146666000000003294 40.849500499999997771 40.787750249964091154 40.312666666641376878 40.263000666666670213 40.08600049999999726 39.412001000000003614 39.411000250000000733 39.795400199999996005 40.035832833222308125 40.26466599991901063 40.529199999817642208 40.694250249948538567 40.723998999999999171 40.717999166666665189 40.698000333356397107 40.665667333383211712 40.648250500007897301 40.601666666666666572 40.560000333369849557 40.472599800039091633 40.410499500000000239 40.416999666692035476 40.416666666666664298 40.422999999999994714 40.362999750000000176 40.329749999999997101 40.290250000000000341 40.291999500000002854 40.28899950000000274 40.316000000000002501 40.399000000000000909 40.635999749999996311 40.969002000131091279 41.446333666804555662 41.70650100005117622 41.772799599870708676 41.399332666455663343 41.055000500000005559 40.762999999584238253 40.817999666369843226 40.918000199834359876 41.056334166543287267 41.013499250003768282 40.940667333374072712 40.727999333389973913 40.294666333327725738 39.944500000000005002 39.773999666666668418 39.552999500042645309 39.505499750010677928 39.414332000000001699 39.337999499999995123 39.296000333333331866 39.322332999995808223 39.285999250000003258 39.272001000000003046 39.243499500159025217 39.215001666666665869 39.223000000206837967 39.139000000042571514 39.147000000000005571 39.029249499999998818 38.932250000255919531 38.969333666666670979 38.792999000054777525 38.736599800000007576 38.63099900000521103 38.582000999999998214 38.52399960005252666 38.445999500006927008 38.532750999999997532 38.727800799934939846 38.921249500000001831 39.566499499999999045 39.353857857142848786 38.823002000077195817 38.810750999999996225 38.70875000001947086 38.628500000000002501 38.63499933350338722 38.798333333333339112 39.032867056178076837 38.158412785875086115 37.767709554708773112 37.37356692911649958 NaN NaN NaN NaN NaN NaN NaN NaN NaN NaN NaN NaN NaN NaN
NaN NaN NaN NaN NaN NaN NaN NaN NaN NaN NaN NaN NaN NaN NaN NaN NaN NaN NaN NaN NaN 38.075990954969014979 40.259360217764893264 42.310730874942407809 41.619250250000000335 41.543001000001027023 41.563501500000000988 41.528499500000002342 41.488249999999993634 41.509000400000005015 41.39699900000000099 41.390501000000000431 41.314833999999997616 41.209667333333335648 41.075001000000000317 41.091667333333333545 40.960999000000001047 40.858249499999999443 40.560665999999997666 40.340333333333340704 40.056832499999998731 39.478667000000001508 39.337250749999995492 39.716499499999997624 39.898199200000000531 40.170999333333334391 40.384667666666665298 40.647999750000003871 40.734199599999996622 40.748001000000002136 40.702000999999995656 40.691999500000001433 40.670000666666673794 40.688666999934810065 40.584250499999996009 40.512332666666672765 40.458999666666670691 40.399999499999999841 40.383667000000002645 40.386333333333332973 40.358000749999995094 40.37840039999999675 40.326750499999995725 40.284999749999997221 40.287000249999998402 40.238998000000002264 40.276599599999997281 40.327667333333330646 40.424599399999998184 40.786000799999996502 41.127334666666662599 41.563999333333335073 41.739501250000003552 41.701000000000000512 41.456501000000002932 41.18799980000000005 41.216999666666673363 41.177250250000000165 41.12233333333333718 40.998249999999998749 40.860400400000003174 40.538499749999999722 40.270000500000001864 40.076500000000002899 39.819499000000000422 39.534999666666664098 39.427123999999999171 39.414332999999999174 39.318750500000000159 39.237333166675981033 39.223999333333331663 39.160000000000003695 39.126668333333334715 39.156000666666670895 39.118499749999998016 39.052500750000000096 39.079500250000002382 38.984749750137368096 38.957999399999998502 38.884999333333333027 38.751250249999998232 38.760999749999996311 38.650750250000001529 38.640499750000003587 38.558749249999998199 38.483000333333329479 38.481200600024585867 38.639248500000000774 38.786332666666659463 39.100999999999999091 39.586749999999994998 38.883666666666663048 38.794399799999993661 38.780285714285710696 38.661498999999999171 38.590749750000000518 38.485750249999995276 39.020665333333333535 38.318856644566892555 37.933567219124839198 37.544838399257507433 37.152670185090471477 NaN NaN NaN NaN NaN NaN NaN NaN NaN NaN NaN NaN NaN NaN
NaN NaN NaN NaN NaN NaN NaN NaN NaN NaN NaN NaN NaN NaN NaN NaN NaN NaN NaN NaN 37.238691415540458252 39.333674577484394774 41.482310465273705802 41.579334333333328289 41.544999750000002336 41.548499249999998995 41.53833399999999898 41.487751250000002301 41.484332999999999458 41.443500499999998965 41.424666333333334478 41.28040000000000731 41.203749750000000063 41.052999499999998534 41.110000499999998169 41.049500499999993508 40.791799800000006826 40.566750750000004189 39.745999666666669725 39.41050149999999519 39.535000600000003601 39.451999999999998181 39.537999999999996703 39.83199975000000137 40.03924924999999746 40.282334999999996228 40.545999500000000637 40.755800000000000693 40.741499000000004571 40.735800199999992799 40.702001000013964926 40.650600199999999518 40.637800800000000834 40.622002000000001942 40.56350100000000225 40.460333666666663532 40.408334000000003527 40.372750249999995731 40.367666999999997302 40.350500500000002546 40.326499999999995794 40.290998500000000604 40.287000500000004877 40.215999666666668588 40.25200099999999992 40.239499999999999602 40.223801000000001693 40.302000666666664586 40.349714714285710215 40.51800049999999942 40.839001000000003216 41.185666333333330158 41.438000750000000494 41.540399200000003077 41.499998666666662928 41.33866700000000094 41.220333333333336157 41.078666666666663332 41.130001000000000033 40.884249499999995692 40.607500500000000443 40.529499000000001274 40.315750250000000676 39.96600000000000108 39.700400599999994711 39.526500999999996111 39.439999999999997726 39.371332666666667421 39.369332333333339591 39.280000499999999874 39.221001000000001113 39.151665999999998746 39.140998666666668271 39.094499499999997738 39.042667333333334057 39.001299799999998186 38.997750249999995731 38.965000000000003411 38.888999999999995794 38.819249999999996703 38.742667000000004407 38.693667333333330305 38.623601000000000738 38.602499999999999147 38.521199799999997992 38.465666333333331295 38.548500000000004206 38.741332999999997355 38.871000333333334709 39.628332666666665318 38.871665999999997609 38.786333333333338658 38.739199800000001517 38.67019960000000367 38.610001000000004012 38.572333000000000425 38.653333333333335986 39.045089356054674568 38.095476060754734249 37.712161046674303577 37.32540663816905635 NaN NaN NaN NaN NaN NaN NaN NaN NaN NaN NaN NaN NaN NaN NaN
NaN NaN NaN NaN NaN NaN NaN NaN NaN NaN NaN NaN NaN NaN NaN NaN NaN NaN NaN NaN 38.477455687444447108 40.537705474307159648 41.914603942267660841 41.546749750000003587 41.5619985000000014 41.587668000000000745 41.514499499999999443 41.454249500000003081 41.531000999999996282 41.545499500000005355 41.353400600000000509 41.283334000000003527 41.164666333333336468 41.15599799999999675 41.111333333333334394 40.781500000000001194 40.600499999999996703 40.103000000000001535 39.545999500000000637 39.461999499999997454 39.433799400000005164 39.399999499999999841 39.808000199999995061 40.004499500000001433 40.195600200000001223 40.436666999999999916 40.71225099999999486 40.737001499999998089 40.733199999999996521 40.700600399999999013 40.679665999999997439 40.637250000000001648 40.618499999999997385 40.601666666666666572 40.511333333333332973 40.434999999999995168 40.361499999999999488 40.35300099999999901 40.338500333333335846 40.296999249999998938 40.262666000000002953 40.263249250000001211 40.260999500000004048 40.216999999999998749 40.240249500000004446 40.226250000000000284 40.23100033333333414 40.187498999999995419 40.229666333333334194 40.298399199999998643 40.485249499999994782 40.719999000000001388 40.964500000000001023 41.128500000000002501 41.379333666666667568 41.254000750000002995 41.115499499999998534 40.896499749999996709 40.839500250000000392 40.673500000000004206 40.503400599999999088 40.24050150000000059 40.086748999999997523 39.972999999999998977 39.723999999999996646 39.598249499999994327 39.505332666666667762 39.411667000000001337 39.296664999999997292 39.235399399999998593 39.191999500000001433 39.150002000000000635 39.133667000000002645 39.122749249999998256 39.007750749999999584 38.991000000000006764 38.916375625000000582 38.906600000000004513 38.832668333333337785 38.764333000000000595 38.737000666666666859 38.70466733333333309 38.683999999999997499 38.614000500000003058 38.511333333333332973 38.477248999999993373 38.630667333333327917 38.793500500000000386 39.521667333333333261 39.384799000000001001 38.834999000000003377 38.786999000000001558 38.718500500000004649 38.65066666666666606 38.606500499999995668 38.57600166666666297 39.036876333334333822 38.253436079723094565 37.875534871305397644 37.494194268586596763 37.109414271505443139 NaN NaN NaN NaN NaN NaN NaN NaN NaN NaN NaN NaN NaN NaN NaN
NaN NaN NaN NaN NaN NaN NaN NaN NaN NaN NaN NaN NaN NaN NaN NaN NaN NaN NaN 37.690703547499630588 39.662567233578648995 41.688083645665457766 41.582500500000001864 41.531599399999663547 41.51899966666666586 41.504001999999999839 41.489751000034083006 41.460999000000001047 41.458751000026317968 41.355001500221980848 41.294498500000003105 41.201000000000000512 41.04999949999999842 41.139249750000004724 40.857500000000001705 40.725799600221016306 40.409666666666673507 39.97766633333333175 39.530500250000002893 39.440749250034542683 39.380250999969028669 39.498249999620703932 39.881374250000000359 40.112999999909774829 40.3590005000000005 40.605332666526678054 40.718500249999998175 40.745200400006957864 40.684750499999999818 40.644998999999998546 40.645999499963423318 40.66250025000000079 40.631750000000003809 40.52300049998024889 40.486201000000008321 40.424999999999997158 40.352500000021365167 40.313499500000006037 40.270750000000006708 40.269800599999996393 40.250749749999997107 40.25499999997725098 40.213749000000007072 40.214750499999993849 40.208400600000004488 40.176750249999997777 40.147199999999997999 40.127000333333334936 40.123999799999999993 40.17539899999999875 40.24024949999999734 40.381751250189680036 40.490400799999996195 40.656499499999995351 40.827499500000001831 40.868999666975255991 40.750800200000000473 40.80100050000000067 40.674332999999997185 40.532332666666668786 40.409000333333331412 40.13700099999999793 40.077600199925889513 39.923498000000002151 39.660000500000002432 39.494999000005336143 39.41399950000000274 39.380501000014689339 39.270000750000001233 39.167749250055507559 39.144249750000000176 39.143501499997341853 39.091999500000000012 39.097399199999998132 39.005998999972270269 38.977667666666668822 38.928001000000001852 38.866000250027376239 38.765000285714286576 38.738499750000002564 38.689499750058708116 38.660999833361429978 38.612833166666668205 38.551142428639664672 38.489665999948080355 38.569749999901191018 38.761666666666663161 39.237332332841830862 39.758400600000001646 38.997249499999995237 38.763500000042085958 38.753000600056374481 38.616000499999998397 38.561001000109278891 38.496600600000000725 39.032666666666663957 38.407447275967236067 38.034959873274488018 37.659033076279932573 37.27966688486169744 NaN NaN NaN NaN NaN NaN NaN NaN NaN NaN NaN NaN NaN NaN NaN NaN
NaN NaN NaN NaN NaN NaN NaN NaN NaN NaN NaN NaN NaN NaN NaN NaN NaN NaN NaN 38.856895742947799022 40.79402605417144656 41.66767608923736077 41.558667666666671892 41.530500500000002262 41.514667666666667856 41.486332999999994797 41.462250750000002597 41.453500000000005343 41.408249999999995339 41.340000000000003411 41.225500249999996072 41.126998666666672477 41.201999999999998181 41.229500000000001592 40.905500500000002262 40.723199399999998604 40.075199800000000039 39.92250066666667152 39.507750500000000216 39.431749750000001598 39.454333333333330813 39.83366666666666589 40.020249500000005582 40.2293329999999969 40.495999333333337233 40.708498999999996215 40.734715000000001339 40.756748999999999228 40.662500500000000159 40.656248749999996051 40.639333333333333087 40.629000333333330275 40.595999999999996533 40.530499500000004787 40.479000333333324591 40.388000249999997493 40.34150149999999968 40.307250000000003354 40.282500999999996338 40.263600199999999063 40.263800200000005702 40.20000050000000158 40.220000499999997601 40.174799999999997624 40.125499750000003019 40.13066599999999795 40.106599199999998007 40.083499750000001427 40.074750000000001648 40.090200200000005282 40.074000250000004542 40.156000000000005912 40.195501499999998885 40.221750249999999482 40.372200200000001757 40.424998999999999683 40.31849950000000149 40.388500499999999249 40.319666333333337604 40.287200200000000905 40.261750250000005735 40.163800999999992314 39.962999600000003397 39.872002000000001942 39.692250250000000733 39.487000166666668122 39.405000333333333629 39.349000333333336243 39.20450050000000175 39.108333666666659667 39.09375 39.118500750000002597 39.075001000000000317 39.019999499999997283 38.984751000000002819 38.963999666666666144 38.90799899999999667 38.847750500000003626 38.773498500000002309 38.704500250000002382 38.637999333333333141 38.593500250000005281 38.56966650000000385 38.510571571428570792 38.505000400000007232 38.723998999999999171 38.851333666666668876 39.544666000000006534 39.419285428571420482 38.805999666666664893 38.782999400000001344 38.724999666666668929 38.600665999999996814 38.544250500000003967 38.697200999999999738 39.06100020000000228 38.190436052519373789 37.819923061188703173 37.445970675555784624 37.068578895499626924 NaN NaN NaN NaN NaN NaN NaN NaN NaN NaN NaN NaN NaN NaN NaN NaN
NaN NaN NaN NaN NaN NaN NaN NaN NaN NaN NaN NaN NaN NaN NaN NaN NaN NaN 38.120691002486744026 39.969435212909061761 41.871832148761328085 41.578001000000000431 41.511999333333328366 41.533332666666666455 41.479800599999997246 41.427333666666669387 41.423333333333332007 41.405000399999998706 41.400665333333336093 41.271666000000003294 41.220857428538636213 41.139750499999998112 41.158000000000001251 41.050333666666666943 40.69516699999999787 40.247000333333332378 39.689199999999999591 39.629166499999996631 39.434251000000003273 39.431500999999997248 39.660600399999999865 39.905999666666666315 40.150000000000005684 40.40966666671477725 40.643749249999999051 40.759666333333335331 40.753001000000004694 40.722999999999998977 40.667000600000001498 40.661000200000003701 40.626501000000004638 40.618499999999997385 40.565666999999997699 40.536833333333326834 40.472999999999998977 40.407333333333333769 40.346665666639353276 40.291999500000002854 40.239249999999998408 40.229667666666664161 40.218600000000002126 40.180331999999999937 40.187428714285715614 40.122666666666667368 40.081999000000003264 40.076000333333333003 40.03849983333333995 40.056799199999993277 40.017750000000006594 39.993248749999992242 39.974000000000003752 39.898749500000008084 39.919333333333334224 40.015498999999998375 40.074750749999999755 40.066000000000002501 40.042499499999998136 40.079000000040039708 39.999857857142863793 40.007500999999997759 40.038999999999994373 40.006333500000003767 39.88375100000868656 39.704999999999998295 39.620624999999996874 39.60350050000000266 39.431248749999994629 39.289600200000002417 39.224666666666671233 39.174998999999999683 39.081500000000005457 39.076749750000004724 39.036499749999997277 39.001501000000004638 38.955666999999998268 38.914000999999998953 38.846500500000004763 38.78733299999999673 38.706001000000000545 38.661498999999999171 38.615600000000007697 38.598998999999999171 38.477000250000003234 38.537499999999994316 38.640332333333333281 38.770500250000004883 38.947500500000003854 39.536667000000001337 38.838999000000001161 38.777332000000001244 38.737000399999999445 38.593251250000008667 38.578199599999997815 38.493000000000002103 39.042199600000003556 38.341963409040062061 37.976864223434333212 37.608325643525652993 37.236347669194444165 NaN NaN NaN NaN NaN NaN NaN NaN NaN NaN NaN NaN NaN NaN NaN NaN NaN
NaN NaN NaN NaN NaN NaN NaN NaN NaN NaN NaN NaN NaN NaN NaN NaN NaN 37.453953012252043209 39.21431112175073963 41.028321956751064192 41.590256166671736082 41.545249749999996425 41.502500499999996464 41.525999999999996248 41.464001000000003216 41.434499750000000518 41.409250249999999482 41.381667000000000201 41.316749500000000239 41.270751249999996446 41.084667333333328543 41.135667333333337581 41.27919939999999599 41.023999999999993804 40.622333666666662566 40.087666833333337024 39.562334999999997365 39.435599600000003306 39.389499499999999443 39.441999800000004939 39.838999499999999898 40.100999600000001521 40.309333666666667284 40.552499749999995515 40.713334333333335735 40.761999666666667963 40.755499499999999102 40.705500749999998789 40.712000333333342894 40.659749749999996027 40.616999499999998591 40.620666333333332432 40.598499500000002627 40.561332999999997639 40.491666000000002157 40.390334000000002845 40.351666666666666572 40.266000500000004081 40.238667666666671607 40.216800800000001459 40.201749750000004724 40.156666000000001304 40.156666000000001304 40.114142714285712543 40.112800800000002255 40.117499999999999716 40.012500000000002842 39.985000499999998169 39.958999599999998509 39.942999800000009714 39.903333500000002232 39.848499000000003889 39.827998999999998375 39.966499499999997624 39.84924999999999784 39.870000166666670793 39.888333666666660804 39.88960039999999907 39.753001000000004694 39.836333000000003324 39.770500250000004883 39.895333666666665806 39.832249750000002564 39.597499999999996589 39.599000333333329138 39.464500499999999761 39.340999499999995237 39.2972494999999995 39.244749999999996248 39.152000000000001023 39.088999999999998636 39.068251500000002352 39.012665999999995847 39.003249249999996096 38.907749625000001004 38.888000500000003967 38.80516566666667444 38.754001999999999839 38.718500250000005281 38.612000666666666859 38.579250500000000557 38.566001999999997452 38.482500250000001074 38.571999500000003991 38.746332666666667421 38.900400599999997553 39.597000000000001307 39.411714428571428925 38.758667000000002645 38.763999999999995794 38.662199999999998568 38.553499833333326308 38.556999000000004685 38.820799800000003188 39.039006320011793605 38.129856562955758648 37.766731788712107232 37.400167620165063909 37.030164057195932514 NaN NaN NaN NaN NaN NaN NaN NaN NaN NaN NaN NaN NaN NaN NaN NaN NaN
NaN NaN NaN NaN NaN NaN NaN NaN NaN NaN NaN NaN NaN NaN NaN NaN NaN 38.528653780816256358 40.254278514966010505 42.033555974885103979 41.524999499986883222 41.569000500000001352 41.518999000000000876 41.530799000000001797 41.396499499989225512 41.384000000020833454 41.405000000053028941 41.339000000061773221 41.321500749999998447 41.152999666666666201 41.063400200098541859 41.056665999999999883 41.183667333333332294 40.714750500000000955 40.386666667141597031 39.922249749999998869 39.48100033332867298 39.44074950000000257 39.378249000000003832 39.739332666666662419 39.994665666554503503 40.197571714285722067 40.442000166666666416 40.663998666589954212 40.729000000043740215 40.805499999999994998 40.715000500000002148 40.689250750026936032 40.682333666676413486 40.664666333333336468 40.641250749999997538 40.647332333333338283 40.637334333286034393 40.50199974999999597 40.446000333333330445 40.420499500000005355 40.364499999999992497 40.293332333333331974 40.232800600000004465 40.198000249999999767 40.198000000072426019 40.148499499999999784 40.154249999999997556 40.115999666666660062 40.074749000000004173 40.018200000000000216 39.999250500000002262 39.912998000000001753 39.909400200000000325 39.900199199999995869 39.840199999999995839 39.831666666673378074 39.83616666669259132 39.738000999961016646 39.785248499999994465 39.741799800000002563 39.76283333333333303 39.753250250065960358 39.644001000000002932 39.667000999999999067 39.582000999999998214 39.745998000045787535 39.737749999999998352 39.597599799999997572 39.438400200000003792 39.492333666771301637 39.363332000000006872 39.265750750000002256 39.189833833407753616 39.174666000012393852 39.087999500000002229 39.005400000082410372 38.985799599999999998 38.96100049999999726 38.85149950000000274 38.83050000009981062 38.752000333363120887 38.704600399999996796 38.662399200000002963 38.608665333333334502 38.542999000000001786 38.470250249999999426 38.484249999949796006 38.700498999929919819 38.859249250000004849 39.28750025000000079 39.503499749999996027 38.957166666894345042 38.770857142857138911 38.685249499999997624 38.627799999988624791 38.539333333333331666 38.582000500000006582 39.015999749999998869 38.278900079694714975 37.921189111234276936 37.560038748411486154 37.195448991167289421 NaN NaN NaN NaN NaN NaN NaN NaN NaN NaN NaN NaN NaN NaN NaN NaN NaN NaN
NaN NaN NaN NaN NaN NaN NaN NaN NaN NaN NaN NaN NaN NaN NaN NaN 37.912463189993616197 39.549701823291435687 41.240593182411501516 41.594790999973724865 41.552999999999997272 41.528333000000003494 41.4793329999999969 41.457000499999999477 41.414999666666666656 41.362666999999994744 41.35725024999999988 41.317000000000000171 41.20524975000000012 41.07099975000000569 41.173999999999999488 41.070332666666665489 40.749998666666670033 40.385998999999998205 39.774332666666659009 39.588249250000004054 39.405428285714286574 39.405500500000002262 39.47224899999999792 39.865249500000004446 40.096199800000000835 40.32033299999999798 40.552334000000001879 40.749000999999999806 40.773997999999998854 40.756000499999998965 40.68233366666666484 40.697999333333335414 40.676666000000004431 40.654399800000000198 40.682498999999999967 40.629998999999997977 40.595001000000003444 40.516666333333340333 40.444999666666660687 40.43324949999999518 40.364167666666666889 40.280751000000002193 40.214000750000003848 40.196750500000000272 40.15433233333333618 40.181998999999997579 40.139000000000002899 40.103999999999999204 40.064666666666674644 40.008000000000002672 39.970999666666664041 39.945749249999998653 39.88300025000000204 39.886249499999998136 39.823333666666663078 39.786799600000001931 39.754331999999998004 39.694666666666670096 39.715958416666666153 39.675333333333334451 39.652749999999997499 39.623428857142862114 39.559249999999998693 39.561333333333330131 39.490199999999994418 39.632249749999999722 39.563500249999997038 39.552400399999996239 39.425998999999997352 39.36119899999999916 39.287400200000000439 39.264334666666663054 39.136251749999999561 39.131999999999997897 39.046399799999996105 38.981001666666664107 38.952499500000001831 38.898199399999995762 38.822400000000001796 38.742332333333330041 38.677999999999997272 38.655799799999996935 38.622750250000002836 38.583999500000004446 38.491200400000003867 38.475250250000001984 38.584000000000003183 38.750250000000001194 38.972832333333329302 39.615000333333334481 38.881250749999992422 38.763199599999992984 38.753500000000002501 38.636500249999997436 38.525665666666668585 38.462500000000005684 38.903999749999996993 39.072791903040915429 38.071697611032242037 37.715961053875602715 37.356785102414448829 NaN NaN NaN NaN NaN NaN NaN NaN NaN NaN NaN NaN NaN NaN NaN NaN NaN NaN NaN
NaN NaN NaN NaN NaN NaN NaN NaN NaN NaN NaN NaN NaN NaN NaN 37.365739349387041557 38.914591881834297737 40.517097140050886139 42.173255124036813868 41.569000333333328001 41.541000249999996186 41.462499499999999841 41.452249750000000006 41.401750499999998567 41.346500500000004763 41.313334333333337156 41.288332666666661908 41.240999399999999753 41.115750249999997834 41.194500000000005002 41.102501000000003728 40.885999499999996942 40.708500000000000796 40.1613998000000052 40.092666666666666231 39.248332999999995252 39.392600000000001614 39.382499666666667792 39.790599999999997749 40.001998749999998495 40.233000666666661971 40.449749999999994543 40.701999499999999443 40.734332999999999458 40.75 40.71600000000000108 40.691799999999993531 40.693500499999998965 40.668200599999998701 40.682666666666669641 40.698666666666667879 40.667664666666667017 40.567667666666672233 40.542500250000003348 40.490333666666664669 40.44849999999999568 40.379999666666662961 40.29099924999999871 40.238200599999998985 40.212749500000001035 40.134249500000002797 40.099201400000005435 40.060999666666667451 40.063399400000001549 40.000333000000004802 39.970499500000002513 39.914000000000008583 39.878799400000005448 39.841799999999999216 39.815750000000001307 39.792666333333336581 39.73575050000000175 39.689999749999998357 39.659499999999994202 39.617083000000000936 39.59725025000000187 39.530999000000001331 39.527999499999999955 39.487334333333336645 39.497166833333331226 39.429333999999990112 39.488498499999998614 39.414199799999998675 39.385800000000003251 39.284957708333337223 39.278749500000003536 39.196000333333330445 39.177332333333332315 39.128749749999997221 39.062958708333333391 39.001999750000003075 38.974200600000003192 38.895333666666665806 38.847667999999998756 38.796499499999995919 38.713332999999998663 38.666499749999999835 38.622333666666662566 38.572001333333332695 38.552000399999997171 38.486999750000002507 38.495998000000000161 38.718334333333338293 38.83775049999999851 39.705500000000000682 39.313666666666662763 38.814250000000001251 38.752166666666667538 38.6736666666666693 38.652000499999999761 38.511999666666667963 38.558799800000002733 39.028199800000002995 38.218257288048874898 37.86793453667431919 37.514172390879757302 37.156970850780226101 NaN NaN NaN NaN NaN NaN NaN NaN NaN NaN NaN NaN NaN NaN NaN NaN NaN NaN NaN
NaN NaN NaN NaN NaN NaN NaN NaN NaN NaN NaN NaN NaN NaN NaN 38.348948690495411995 39.863067847905178098 41.430839731040535412 41.560999000000002468 41.551000000000001933 41.519999999993792983 41.469000333333333685 41.409999999999996589 41.365499499999998534 41.344000000000001194 41.313666000000004885 41.223249500000001433 41.143500249999995333 41.041499999999999204 41.132499499999994441 40.908000000000001251 40.890250250000001131 40.960248999999997466 40.150199800000002881 39.466000399999998649 39.397500166666667099 39.402501250000000255 39.668666999991771149 39.929399799999998777 40.139499499999999443 40.360000499999998169 40.60500100000000856 40.742000500000003171 40.786666666666668846 40.719799999999999329 40.689333666666662737 40.709750249999999028 40.674332999999997185 40.684665666666667505 40.638399400000004391 40.678666333333332261 40.695999000000000478 40.662750250000001984 40.614000250000003689 40.504333666666667568 40.401143285714290698 40.329999333333340417 40.272501000000005433 40.2322492499999953 40.156400199999993106 40.106250750000000949 40.08079999999999643 40.042250750000000892 39.981400399973551885 39.958200800000000186 39.931000000000004491 39.880250000000003752 39.864665666666667221 39.828001000000000431 39.796499250000003656 39.753199800000004416 39.698250000000001592 39.661998666666661961 39.582000000000000739 39.55899959999999993 39.481143571428567896 39.468000199999998756 39.433750249999995674 39.463501000000000829 39.478667166666667754 39.407499499959641298 39.384500500000001466 39.358799599999997554 39.317199800000004473 39.304999999999999716 39.22299966666665938 39.157499999999998863 39.115500750000002483 39.049665999999994881 39.055499999999994998 38.983998999999997181 38.917999000000001786 38.883500500000003797 38.80074975000000137 38.740333666666664669 38.656799200000001804 38.632333000000002698 38.598998999999999171 38.556750499999999704 38.504499500000001433 38.483333666666666772 38.671334333333327038 38.835250750000000153 39.043000333333331753 39.582834166666664544 38.942000000000000171 38.755999800037258751 38.713749000000007072 38.649332666666673219 38.54466633333333192 38.489750000000000796 39.011999200000005317 38.360868142399134229 38.015959196748823956 37.66761085667921094 37.315823122303925174 NaN NaN NaN NaN NaN NaN NaN NaN NaN NaN NaN NaN NaN NaN NaN NaN NaN NaN NaN NaN
NaN NaN NaN NaN NaN NaN NaN NaN NaN NaN NaN NaN NaN NaN 37.852772249366182677 39.278505305880258902 40.757891088391090761 42.236880285586778427 41.518666333333335672 41.516666333333333228 41.473332666666664181 41.421998999999999569 41.386668000000000234 41.376250499999997601 41.321199800000002256 41.256750250000003177 41.175749499997117198 41.082334000000003016 41.170499833333330741 41.011750250000005735 40.83666600000000102 40.540500500000000272 40.524000250000000278 40.039332000000001699 39.433500500000000955 39.400000333333338176 39.486333000000001903 39.829250500000000557 40.055499999997906002 40.267999199999998439 40.472600400000004583 40.72083266666667356 40.754668000000002337 40.75774950000000274 40.673600999999997896 40.701999999999998181 40.666499999999999204 40.686333666666662623 40.663499500000000353 40.620000333333337039 40.707600600000006352 40.720333000000003665 40.658499750000004269 40.703668000000000404 40.546333333333336668 40.386249250000005873 40.348250499999998908 40.303500999999997134 40.247666666666667368 40.152333333353666944 40.089999999996749125 40.047333999999999321 40.009500000000002728 40.000749499999997738 39.956000249999995333 39.908332666666666455 39.864666666666664696 39.836250249999991979 39.793000666666664245 39.765498999999998375 39.710665666666670859 39.659000500028867009 39.610001000032596608 39.550400400016009428 39.493199199999999394 39.485750249999995276 39.438666666666669869 39.37449950000000598 39.398999333333335926 39.402999999999998693 39.336333833333327448 39.310599600000003306 39.328500749999996344 39.274499750009788102 39.207832833333334577 39.151142714299012937 39.110999999999997101 39.069666666666670096 39.055999749999998016 39.012750500000002774 38.939500666666667428 38.860200599999998872 38.808750250000002779 38.749666999999995198 38.73249900000000423 38.699499500000001717 38.639750499999998112 38.557000999999999635 38.518499249999997858 38.470000249999998232 38.576500000000002899 38.768499500000004332 38.992750250000000278 39.671500999999999237 39.401999500000002286 38.769998499999999808 38.730999571428569084 38.649143142857141697 38.581999199999998496 38.501500250000006531 38.692999749999998471 39.057249208331953128 38.160035034043133351 37.817100499754445764 37.47072657104691018 37.120913248033268417 NaN NaN NaN NaN NaN NaN NaN NaN NaN NaN NaN NaN NaN NaN NaN NaN NaN NaN NaN NaN
NaN NaN NaN NaN NaN NaN NaN NaN NaN NaN NaN NaN NaN 37.42606255836298601 38.763409514025127578 40.154409195711501468 41.599061602917643654 41.57240511904761604 41.534500000000001307 41.488333000000004347 41.45066600000000534 41.373001199999997368 41.364000500000003058 41.439333333333330245 41.262666000000002953 41.246001500000005535 41.142400399999999649 41.033332999999998947 41.165500500000000272 40.791666666666671404 40.673749749999998926 40.323333666666663078 40.186800200000007521 39.486749750000001313 39.426498499999993896 39.344142999999995425 39.739249999999998408 39.993500749999995492 40.140667666666665525 40.401498500000002423 40.583248999999995021 40.712333666666665977 40.761200600019009244 40.725398999999995908 40.743333000000006905 40.708249999999999602 40.685998999960879985 40.681199800000001687 40.625333333333337293 40.641999999999995907 40.718999500000002456 40.779998750000004293 40.814200600000006602 40.69016650000000368 40.535667333333329054 40.419997999999999649 40.330250000000006594 40.239332666666669525 40.177599999999998204 40.158332666657358345 40.104750750000000892 40.058750250000002779 40.00566599999999795 39.9495995999999991 39.914499249999998653 39.892332666666668217 39.83799999996523411 39.789800200000001951 39.739332999999994911 39.708200200004093006 39.652999499999999955 39.647666999999998438 39.571333500000001493 39.527332333333333736 39.471666500000004874 39.437799800000007622 39.432500166666663688 39.367000666666669417 39.341250250000001643 39.327998999999998375 39.268749999999997158 39.256666666666667709 39.18550025000000403 39.169598199999995813 39.170499749999997618 39.118001249999998947 39.069000250000001984 39.055949449999999956 39.026001000000000829 38.967249999999999943 38.888501249999997356 38.847667666666666264 38.788000000000003809 38.723499999999994259 38.692666666666667652 38.637998800000005417 38.588500000000003354 38.532000000000003581 38.52266533333333598 38.537666333352582626 38.662499999999994316 38.859142142857137969 39.323999000000000592 39.40850050034365637 38.806429142857140846 38.755200000000002092 38.704856857125747638 38.619001500000003091 38.513666666666665606 38.592665000000003772 39.022998999999998659 38.300162048669932346 37.9626413201054973 37.621681197122896378 37.277281679833492944 NaN NaN NaN NaN NaN NaN NaN NaN NaN NaN NaN NaN NaN NaN NaN NaN NaN NaN NaN NaN NaN
NaN NaN NaN NaN NaN NaN NaN NaN NaN NaN NaN NaN 37.068819617561651114 38.317780472373229372 39.620394053159103009 40.976660359513317644 41.766275072931072998 41.565599599999998759 41.522500999999998328 41.485500500000000557 41.429999250013963774 41.359332999999999458 41.38766733333333292 41.35350050000000266 41.245249749999999267 41.181499250000001666 41.018333666666670467 41.124600000000000932 40.890999999999998238 40.773500249999997891 40.48775024999999772 40.248199399999997183 39.64299966666666819 39.341800599999999122 39.391600199999999177 39.564500499862162997 39.877749500000000182 40.0472494999999995 40.339000799867129388 40.53374924999999962 40.73100033333333414 40.761501500000001386 40.713667666662942679 40.674249749999994208 40.683799800000002733 40.68924899999999667 40.673000000000001819 40.64499925000000502 40.628400600022629874 40.650333333333328767 40.741998500000001115 40.873249999999998749 40.83124949999999842 40.700750499999998056 40.576250250000001074 40.431667333333336956 40.29524975000000353 40.205666999999998268 40.163332333333336521 40.098001000000003557 40.047749500000001888 40.017499499999999557 39.970999333333331549 39.955000666666670384 39.876800400000000479 39.848750000000002558 39.835800399999996557 39.78099799999999675 39.771666000000003294 39.682499749999998073 39.6467998000000037 39.598334333333333745 39.542198999999996545 39.508399999999994634 39.459249499999998534 39.39699900000000099 39.371598800000001006 39.34100000000000108 39.297333999999999321 39.292000000000001592 39.266333333333328426 39.274199600000002874 39.195000000027476972 39.163500749999997197 39.113799399999997775 39.088599599999994894 39.069750000000006196 39.031374499999998307 38.97000025000868817 38.944499999999997897 38.839249500000001092 38.807749749999999267 38.777500000000003411 38.70449949999999717 38.656199600000000771 38.613999999999997215 38.567000999999997646 38.526600000000001955 38.50032477500000283 38.626200400000001878 38.7989987142857089 39.014001333333332866 39.77499974999999921 39.028400399999995329 38.771667333333333261 38.73649975000000012 38.643749000074969047 38.556333999999999662 38.533399399999993307 38.956749999999999545 39.084916708326453261 38.104233317677490334 37.768687000474685078 37.429701288854168695 37.087276182926395052 NaN NaN NaN NaN NaN NaN NaN NaN NaN NaN NaN NaN NaN NaN NaN NaN NaN NaN NaN NaN NaN
NaN NaN NaN NaN NaN NaN NaN NaN NaN NaN NaN NaN 37.941618180853794229 39.155845660807429454 40.423725866311059463 41.745258797584043009 41.597000000000001307 41.555000000024833184 41.491332999999997355 41.463333333333331154 41.410000000007819665 41.359999333333341553 41.310666333333337263 41.265000666666665552 41.238997999999995159 41.07566600000000534 41.086332666666663727 41.053000333333336869 40.898333333333333428 40.582000999999998214 40.391998000000000957 40.18980020000000053 39.508200000000002206 39.411001499999997577 39.287999999999996703 39.776001000000000829 40.002000333333334936 40.216999000000001274 40.468000499911212842 40.708249250000001496 40.710250999999999522 40.695999000000000478 40.693249749999999665 40.66919860000000142 40.678333000000002073 40.643333333333337976 40.630000000000002558 40.600999000000001615 40.594666999999994061 40.570500500000001409 40.767332666666668217 40.874800200000002803 40.88299966666667018 40.883250250000003234 40.590333333333333599 40.431665999999999883 40.254000333366384723 40.215334666666670671 40.127333333333332632 40.056800200000004963 40.006750249999996072 39.996400600000001191 39.94639980000000179 39.902332833333332474 39.82966733333333309 39.817501000000000033 39.788000000000003809 39.73600024999999647 39.748399200000008591 39.673000000000001819 39.64225024999999647 39.575250750000002142 39.526333999999998525 39.491666166675862826 39.421800000000004616 39.393000600000007694 39.356999666666659721 39.344249750000003019 39.289832833333335316 39.270499999999998408 39.246749458333333394 39.219750249999997038 39.159249250000002007 39.100833333333333997 39.079999999999998295 39.021749499999998534 39.009500500000001466 39.015999000000000763 38.921331999999999596 38.913799199999992595 38.83100059999999587 38.792334333333329255 38.725332999999999117 38.68374899999999883 38.645999750000001427 38.597399799999998038 38.533000999999998726 38.498000249999996925 38.567250500000000102 38.730250499999996805 38.859999333333327343 39.463334666666668227 39.225999333333334107 38.829600399999996796 38.750333999999995171 38.694249999999996703 38.580002000000000351 38.493999500013039494 38.5206670000000031 39.045499499974859248 38.241876492580821889 37.911743981047855812 37.578172075206687452 37.24116077500316635 NaN NaN NaN NaN NaN NaN NaN NaN NaN NaN NaN NaN NaN NaN NaN NaN NaN NaN NaN NaN NaN NaN
NaN NaN NaN NaN NaN NaN NaN NaN NaN NaN NaN 37.634922639529804655 38.760764018590727176 39.940258123242429633 41.173404953693228947 41.610197617325880515 41.557000999999999635 41.54319900000000132 41.479400599999998178 41.459667333333335648 41.38300025000000204 41.334333000000007985 41.308500499999993849 41.255332666666667762 41.129668000000002337 41.048000500000000557 41.139250750000002199 40.945999000000000478 40.578999666666668134 40.593599799999999789 40.07733433333333295 39.985666999999999405 39.424500499999993508 39.402599399999999719 39.669665999999999428 39.931333000000002187 40.101665333333336605 40.376800600000002817 40.611999333333329787 40.720500999999998726 40.709665999999998576 40.736248750000001451 40.664749000000000478 40.671249250000002462 40.659999500000004957 40.617599400000003129 40.594999000000001388 40.575199999999995271 40.570499499999996829 40.530999599999994132 40.759999666666665519 40.861499999999999488 40.951250250000001074 40.980750249999999824 40.718999000000003718 40.508000666666667655 40.2919996666666691 40.192999333333332856 40.112000000000001876 40.053000000000004377 39.99950049999999635 39.987799799999997674 39.884498500037565805 39.877166166666661695 39.825800400000005652 39.788749500000001547 39.767399599999997406 39.714000666666663619 39.692249249999996152 39.62349933333333496 39.603500499999995554 39.578749750000000063 39.520200600000002567 39.444249999999996703 39.395750250000006076 39.367500500000005559 39.364000500000003058 39.315667333333330191 39.294174650000002202 39.254667000000004862 39.215499750000006429 39.179999249999994504 39.123332999999995252 39.087751499999995985 39.030200000000000671 39.026041166666658455 38.961750999999999578 38.99000199999999694 38.890599600000001601 38.864500000000006708 38.813666000000004885 38.810800200000002746 38.716667333333333545 38.660666999999996563 38.608998333333339303 38.58775049999999851 38.506333666666670013 38.518799600000001249 38.695665999999995677 38.820333500000003824 39.293000333333331753 39.635998999999998205 39.064999499999998989 38.741199600000001624 38.705002000000000351 38.647000666666663449 38.469799799999996992 38.497333666666669671 39.655000166666660277 38.393230324500621009 38.050852138951938741 37.722694038835008712 37.391096544301518634 37.056059655459627322 NaN NaN NaN NaN NaN NaN NaN NaN NaN NaN NaN NaN NaN NaN NaN NaN NaN NaN NaN NaN NaN NaN
NaN NaN NaN NaN NaN NaN NaN NaN NaN NaN 37.397693848346044376 38.435149126543819875 39.526257130368080084 40.671017859938551453 41.869431315278355044 41.601666999999999064 41.558000499999998567 41.520000333333335618 41.49249799999999766 41.407999666666661653 41.376001500000000988 41.316999500000001433 41.308333833333335861 41.219333666666663873 41.064998749999993777 41.067501000000000033 41.188000000000002387 40.872499500000003536 40.605001500000000192 40.078998666666670658 40.041498000000004254 39.55319899999999933 39.381667000000000201 39.332000999999998214 39.840999499999995237 40.040399800000002983 40.296666333333327259 40.533498999999999057 40.751999750000003075 40.73733266666666708 40.716124499999999387 40.68900066666666504 40.640401599999997018 40.603667000000001508 40.607999500000005355 40.588999666666666144 40.566199599999990255 40.53399999999999892 40.544999333333336722 40.542999000000001786 40.787333000000003835 40.961000000000005627 41.100334333333329084 41.091499249999998256 40.933334333333334598 40.651667000000003327 40.349666666666671233 40.204250250000001188 40.076000500000006355 40.047998999999997238 39.980665666666673985 39.917332999999999288 39.87433366666666501 39.829600599999999133 39.808500500000000955 39.770333666666665806 39.736333833333340237 39.705000200000007737 39.710999000000001047 39.630799799999998356 39.565751000000005888 39.553800000000002512 39.465000200000005748 39.435000999999999749 39.381599399999998923 39.331666333333338059 39.325499000000000649 39.290333666666668933 39.255499750000005577 39.213999499999999898 39.175666999999997131 39.134332999999998037 39.094999999999998863 39.040999999999996817 39.038249999999997897 39.040000999999996623 38.970599399999997559 38.907499000000001388 38.880000000000002558 38.860198799999999153 38.792749249999999961 38.759199399999999969 38.684666999999997472 38.675499999999999545 38.610199799999996628 38.56114300000000128 38.49000000000000199 38.573501499999998998 38.756333666666670013 38.853667000000001508 39.567000250000006645 39.46333333333333826 38.777999999999998693 38.741666333333334649 38.653999200000001224 38.553333333333334565 38.501666999999997643 38.501333000000002471 39.115998999999995078 38.186011474131802856 37.86326717968587019 37.537083490930577057 37.207460407759157306 NaN NaN NaN NaN NaN NaN NaN NaN NaN NaN NaN NaN NaN NaN NaN NaN NaN NaN NaN NaN NaN NaN NaN
NaN NaN NaN NaN NaN NaN NaN NaN NaN 37.229931807349963435 38.179000984685934839 39.181722887635125119 40.238097516353654726 41.348124870864879199 41.587388777703161225 41.577666999999998154 41.533999333333333936 41.533798799999999574 41.443500499999998965 41.400998999999998773 41.347000333333333799 41.295400199999996005 41.258248999999999285 41.128667333333332579 40.977499000000001672 41.287333333333329222 40.689999000000000251 40.584250750000002483 40.182001499999998373 40.026599799999999618 39.45533366666666808 39.376001500000000988 39.365666666666662366 39.743999500000001035 39.907999333333329162 40.188199599999997247 40.422250000000005343 40.687166166666663969 40.747499500000003536 40.77933233333333618 40.703500500000004081 40.687665333333335127 40.65260000000000673 40.62566633333333499 40.578000250000002325 40.569000000000002615 40.570250749999999584 40.507499500000001547 40.52199900000000099 40.6252507499999993 40.93166733333332985 41.11457242857142802 41.316999500000001433 41.304400799999996252 41.133000666666667655 40.8146679999999904 40.556750250000000335 40.334500500000004308 40.095334333333333632 40.029668000000008021 39.963000000000000966 39.898250499999996066 39.880000249932322731 39.811498499999999012 39.771749499999998534 39.745999428571430201 39.69899949999999933 39.666748749999996448 39.634250500000000272 39.603667000000001508 39.740166333333327486 40.446500499999999079 39.49825100000000333 39.417999999999999261 39.370249749999999267 39.316800000000000637 39.286599799999990523 39.262399199999997279 39.239499999999999602 39.177000666666664586 39.157332000000003802 39.129001999999999839 39.074999666666663245 39.061000999999997418 39.010750999999999067 39.016666333333333228 38.920749749999998812 38.892399600000004511 38.845666666666666345 38.817000499999998908 38.765749999999997044 38.746199800000006519 38.703499999999998238 38.671498999999997181 38.592249999999999943 38.507998999999998091 38.536332333333341182 38.694000333333335107 38.804833999999999605 39.486333000000001903 39.493399000000003696 38.815199200000002122 38.72524900000000514 38.676749999999998408 38.560499999999997556 38.560499999999997556 38.467666666666666231 39.047249749999998869 38.317221986535173528 37.999891497866478574 37.679121614835437981 37.354912337388959997 37.027263665632943912 NaN NaN NaN NaN NaN NaN NaN NaN NaN NaN NaN NaN NaN NaN NaN NaN NaN NaN NaN NaN NaN NaN NaN
NaN NaN NaN NaN NaN NaN NaN NaN 37.131636516501906442 37.992319592974716613 38.906655395088684202 39.874643922956657605 40.896285176593956123 41.971579156165262248 41.551500500000003058 41.542333999999996763 41.5 41.463250500000000898 41.425999999999994827 41.408333166666665193 41.35300099999999901 41.258250000000003865 41.145000499999994759 40.99799900000000008 41.015998500000002025 40.991000999999997134 40.635500000000000398 40.385665999999993403 39.916668333333333862 40.114999499999996146 39.421833666666664442 39.379667333333337353 39.515999999999998238 39.883998999956233433 40.107750000000002899 40.374500249999996981 40.601333666666668876 40.767665666666665913 40.745833666666662509 40.76200099999999793 40.724000333313306044 40.661500500000002489 40.626599799999993934 40.583667999999995857 40.58600049999999726 40.548000333333334311 40.527332333333333736 40.48266599999999471 40.50049950000000365 40.707000999999998214 41.100332833333332871 41.346333666666666318 41.51366833333333517 41.419999250000003599 41.358250750026847697 41.219665666666664094 40.845666333333333853 40.469750499999996407 40.085666666666668334 40.001665666666667676 39.930500000000002103 39.886999666666660858 39.823000666666665381 39.797750249999999994 39.755332666666667762 39.707199200020490082 39.644500000000000739 39.624000499999993963 39.607001000000003899 39.565749250000003201 40.227499999628662408 40.16900012500000372 39.44299999999999784 39.407748999999995476 39.351400200000000495 39.295249749999996425 39.257398799999997152 39.241000999999997134 39.189000333333332549 39.154582250000004251 39.115833166666668319 39.062000249983235278 39.059332333333337317 39.023750249999999085 38.988666666666667027 38.935666333333337263 38.913000249999996072 38.87566633333333499 38.819000000000002615 38.771000000000007901 38.730500249999991524 38.715000000000003411 38.680333333333337009 38.617666166666666072 38.52300000000000324 38.509997999972050309 38.630400199999996858 38.810000399999999843 39.665999999999996817 39.563999666666667565 39.011799600000003352 38.753000499999998851 38.70500000000807006 38.629999999999995453 38.565333000000002528 38.468332999999994115 39.063000000000002387 38.743062468630171225 38.132566993322889459 37.817210915963975992 37.498415444294558085 37.176180578210157535 NaN NaN NaN NaN NaN NaN NaN NaN NaN NaN NaN NaN NaN NaN NaN NaN NaN NaN NaN NaN NaN NaN NaN NaN
NaN NaN NaN NaN NaN NaN NaN 37.102807975823637321 37.875104951444747314 38.701054652691432523 39.580657079707464163 40.513912232508388911 41.500820111217898045 41.594000666666666177 41.566499500000006151 41.51949975000000137 41.509999250000007009 41.443749499999995578 41.428500999999997134 41.360666999999999405 41.323000000000000398 41.234499999999997044 41.078500500000004081 40.852750000000000341 40.865999666666667167 40.745249749999999267 40.661332666666673674 40.387499750000003473 40.126832000000000278 39.402500000000003411 39.39616766666667047 39.403000000000005798 39.770000499999994759 39.996332999999999913 40.250749249999998369 40.503800399999995818 40.726000400000003765 40.727750000000000341 40.773249499999998591 40.726500000000001478 40.702666000000000679 40.658000200000003588 40.616999999999997328 40.580499999999993577 40.540750249999994992 40.504000800000000027 40.484332999999999458 40.443250750000004246 40.552999499999998534 40.905801600000003759 41.290250749999998447 41.493000999999999578 41.370750499999999761 41.349499749999999665 41.312666666666665094 41.314750000000003638 41.043332666666664466 40.541332000000004143 40.142499499999999557 39.975249500000003877 39.922665999999999542 39.84375 39.782666666666671063 39.769400600000004431 39.745999249999997005 39.661599600000002397 39.616799999999997794 39.599200400000000855 39.573002000000002454 39.55100050000000067 39.487333999999997047 39.466333999999996252 39.426599400000000628 39.358999250000003656 39.320000399999997853 39.274125025000003575 39.207750250000003689 39.216000999999998555 39.156332333333331519 39.113999666666664723 39.103332333333334248 39.049599200000002952 39.014249750000004724 38.984499750000004781 38.968249249999999506 38.91920000000000357 38.882000750000003109 38.828333333333340249 38.81099933333333496 38.753000249999999482 38.720250250000006531 38.678875249999997266 38.639998999999995988 38.585083291666663285 38.492666333333332318 38.580750499999993508 38.710999999999991417 38.846001000000001113 39.598998999999999171 39.27933316666666741 38.750999333333332686 38.727748749999996392 38.688331666666670117 38.530999333333333823 38.619500999999999635 38.4833323333333297 39.04533266666666691 38.261293666003929559 37.951351394421124041 37.637969728424280902 37.321148668116499891 37.000888213404820704 NaN NaN NaN NaN NaN NaN NaN NaN NaN NaN NaN NaN NaN NaN NaN NaN NaN NaN NaN NaN NaN NaN NaN NaN
NaN NaN NaN NaN NaN NaN 37.143446185321366215 37.827357060069218164 38.564920660463968716 39.356136986638354358 40.201006038573147805 41.099527816419502813 42.051702319911335337 41.554998500013127227 41.541332333333336635 41.520249499999998477 41.485999999999997101 41.459000000000003183 41.393333333333337976 41.338750000000004547 41.27524950000798043 41.167332666666666796 40.968249249999999506 40.934000000040001055 40.739999500182264569 40.740999666666674273 40.566000666666660379 40.202499000000003093 40.152333666666663703 39.441499499999999045 39.398500250022536306 39.715999666723632799 39.908500500000002376 40.158500500000002376 40.418998750000000086 40.663332333218043857 40.753166666666665208 40.755498499950313374 40.746500000000004604 40.718501250002226755 40.702501249999997412 40.641249500000000694 40.590250249999996868 40.567501000000000033 40.510999499999996942 40.487668666662877115 40.44700050004777836 40.463499000070051181 40.69949900000000298 41.118500749999995492 41.418665333333336775 41.302332333333332315 40.920599400000000401 40.79000100033713494 40.819333333333332803 41.107251250254840613 41.134333333333330529 40.63533266666667032 40.175333666666666943 39.960000333449926302 39.863000333333332037 39.833666333333333398 39.77350150000000184 39.733000399999994556 39.661749750073283849 39.633833666666667739 39.575999800055114974 39.555999800000002153 39.524249000000004628 39.493665999999997496 39.446750500000000272 39.423599700010008462 39.394998499999999808 39.343333666666666204 39.280249249999997119 39.249666166666663969 39.21900033334205915 39.171800199999992742 39.116666333333334649 39.091667333371468374 39.033333333333338544 39.006000666666665211 38.985500500020307868 38.96820019999999829 38.911143142857142152 38.881250500000000159 38.82500066666666072 38.810399599999996667 38.773399199999992959 38.737000999999075646 38.725500999977882088 38.717000999999996225 38.630000000000002558 38.552999750034473436 38.548666666639626044 38.687749999985491911 38.834250499859507499 39.280999333357776493 39.256285571428570336 38.849571714285715984 38.741333000023431055 38.689834000000004721 38.609332999999999458 38.519249999999999545 38.458666333343899169 39.038799333048658013 38.604036926648447547 38.081543050154067487 37.77357518988217322 37.462167935256530882 37.147321286259298745 NaN NaN NaN NaN NaN NaN NaN NaN NaN NaN NaN NaN NaN NaN NaN NaN NaN NaN NaN NaN NaN NaN NaN NaN NaN
NaN NaN NaN NaN NaN 37.253551144978786169 37.849075918867150392 38.498253418411330529 39.201083643724849992 39.957566594807708782 40.767702271800047242 41.631490674426906651 41.600333333333331609 41.572667333333335193 41.475999999999999091 41.51016666666667021 41.513750999999999181 41.433667666666664786 41.409333333333329108 41.340500000000005798 41.247000666666671975 41.117667000000004407 41.064498999999997864 40.881999999999997897 40.68166733333332985 40.344000499999999931 40.133834333333332722 39.699082875000001991 39.434999000000004798 39.374833333333334906 39.423666666666662195 39.806499500000001035 40.061000166666666189 40.3302507500000047 40.59900025000000312 40.793498999999997068 40.77575000000000216 40.777999999999998693 40.729999666666664382 40.698000666666672487 40.69024874999999497 40.592000249999998118 40.566200199999997267 40.530000333333333629 40.484000250000001131 40.424332999999997185 40.398666333333331124 40.389000000000002899 40.743000000000002103 41.185001333333332241 41.372000333333332378 40.788200199999991469 40.357665666666662219 40.276665999999998746 40.43433383333333353 40.839665666666668642 41.118333999999997275 40.682332666666667365 40.154999750000001768 39.879333333333327971 39.847250000000002501 39.781334000000001083 39.704249499999995976 39.711001333333335594 39.61850099999999486 39.602667666666668822 39.558999600000007035 39.515200000000000102 39.462834333333333348 39.433833333333332405 39.409500250000000676 39.378748749999999745 39.338799399999999196 39.322333666666672514 39.261501500000001386 39.19925024999999863 39.185233799999998894 39.158799599999994712 39.099875875000002168 39.048833166666668149 39.000999000000000194 39.004249749999999608 38.945333666666670069 38.93933333333333735 38.888000666666663108 38.858666666666664469 38.811999999999997613 38.796332999999997071 38.77999866666667117 38.733201800000003345 38.751750999999998726 38.71100049999999726 38.567249499999995521 38.533999000000001445 38.618750750000003791 38.760575250000002256 38.958749500000003252 39.820334333333335053 38.942750000000003752 38.789666666666668959 38.710800200000008431 38.628666000000002612 38.539999749999999779 38.50599979999999789 38.570667166666673609 38.778599400000004493 38.207785883112791225 37.905231828573178632 37.599238379663511012 37.289805536441768652 NaN NaN NaN NaN NaN NaN NaN NaN NaN NaN NaN NaN NaN NaN NaN NaN NaN NaN NaN NaN NaN NaN NaN NaN NaN NaN
NaN NaN NaN NaN 37.43312285480441659 37.940261527827317423 38.501052926519548691 39.115497050983655924 39.7835939012159443 40.50534347733734819 41.280745779112265836 42.10980080666452352 41.568799600000005512 41.556666999999997358 41.553333333333334565 41.427250749999998902 41.519999499999997283 41.617199799999994525 41.344249499999996544 41.32024950000000274 41.167250499999994418 40.976999249999998653 41.127001666666664903 40.88766733333333292 40.532332333333329188 40.261499500158016929 40.105600199999997812 39.451333666666663191 39.38699900000000298 39.353333666666664215 39.737333999999997047 39.993749750000006316 40.246000250000001586 40.489999499999996146 40.740499499999998534 40.777666666666668505 40.803249250000000359 40.734748750000001394 40.68799966666666279 40.683500500000000955 40.61349949999999609 40.579000999999998101 40.54399940000000413 40.500999499985098851 40.416999750000002223 40.367000500000003171 40.35299959999999686 40.390334000000002845 40.729749499999996942 41.256499249999997403 41.159000333333331412 40.525999666666663757 40.060333333333339567 40.013333666666660804 40.236667666666669163 40.790751499999998941 41.058400600027191274 40.587000333333328683 40.166000000043467821 39.889999500000001831 39.769999000000005651 39.751000666666669758 39.688999333333335073 39.664999666666666656 39.592999499999997681 39.58400075000000129 39.50839900000001137 39.442999750000005577 39.410999833333335118 39.379999599999997884 39.35450025000000096 39.316000000000002501 39.295799924999997188 39.279799600025519624 39.230333999945358414 39.174332666666664693 39.151498750000001792 39.121799599999995678 39.074400199999999472 39.051332999999999629 39.018999000000000876 38.979500999999999067 38.941584083333339095 38.905199999999993565 38.859801466666667125 38.810499249999999449 38.78350049999999527 38.758333999999997843 38.734666333333329646 38.700250750000002142 38.659999666666664098 38.63960039999999907 38.525199000000000638 38.620749500000002286 38.714583958333335545 38.862500249999996527 39.435000999999999749 39.688333000000000084 38.771334666666668056 38.718998999999996613 38.662998000000001753 38.551999799999997265 38.478800200000009113 38.470334666666673229 39.050600399999993328 38.330079893354771059 38.032939644582242522 37.732360001397523774 37.42834096390002685 37.120882531989813913 NaN NaN NaN NaN NaN NaN NaN NaN NaN NaN NaN NaN NaN NaN NaN NaN NaN NaN NaN NaN NaN NaN NaN NaN NaN NaN
NaN 37.005614347971516054 37.317061468499851173 37.68216131479752562 38.100913886957272325 38.573319184794826242 39.099377208405840634 39.679087957786194352 40.312451433045794147 40.999467633970148484 41.740136560663835041 41.647000500000004308 41.578600399999992021 41.568749750000002052 41.492333666666667114 41.48649975000000012 41.508665666666665572 41.526500499999997373 41.309000666666669588 41.26199900000000298 41.089001000000003216 41.068000999999995315 41.079000000000000625 40.847333666666663987 40.314000000000000057 40.0763333333333307 40.313250500000002319 39.414000250000000847 39.399799999999999045 39.556250499993019787 39.872000000000006992 40.090999499999995237 40.368800400000004913 40.676999333333334619 40.80449974999999796 40.782200000000003115 40.777335000000000775 40.706499500000006719 40.672874375000006353 40.624333333333332519 40.590333333333333599 40.579000499999999363 40.506000499999998965 40.443000666666669929 40.417665999999996984 40.325333999999998014 40.321334999999997706 40.318750249999993684 40.726000999999996566 41.247500500000001011 41.227750750000005553 40.637749499999998193 40.206249999999997158 40.130001000000000033 40.399332666666666114 40.821000333333337551 40.900749000000004685 40.601751249999999516 40.20000050000000158 39.964666999999998609 39.803666333333332261 39.776667333333335819 39.664999333333334164 39.596250499999996464 39.714750500000000955 39.533999500000000182 39.492501250000003665 39.419333000000001732 39.385000249999997379 39.359200599999994097 39.336999833333329946 39.301499666666671828 39.261399599999990073 39.229286428571427336 39.172199999999996578 39.159000500000004763 39.12219999999999942 39.077333000000002983 39.073333666666663078 39.036250000000002558 38.977832833333330598 38.920999000000001899 38.906249750000000631 38.854249750000001029 38.832416833333326167 38.794999333333329616 38.804000999999999522 38.746499999999997499 38.694249499999997965 38.679000999999999522 38.594600200000002133 38.546331999999999596 38.561800399999995648 38.673999666666666997 38.801749250000000302 39.219501499999999794 39.652999999999998693 38.855332666666669184 38.761499250002799499 38.721800999999999249 38.609000250000001131 38.490666833333335717 38.434624749999997562 38.926999999999999602 38.3981248750000006 38.156698637818223574 37.861532800407331933 37.562927568584683513 37.26088294244881638 NaN NaN NaN NaN NaN NaN NaN NaN NaN NaN NaN NaN NaN NaN NaN NaN NaN NaN NaN NaN NaN NaN NaN NaN NaN NaN NaN
37.500891759838303585 37.723952779514704048 38.000666524951057568 38.331032996249007283 38.715052193238747691 39.152724115997813215 39.644048764522331396 40.189026138918777065 40.787656238991196744 41.439939064833154703 41.704066633130580044 41.634498500000006516 41.603498000000001866 41.574401000000001716 41.489500249999998971 41.480000500000002717 41.427332666666671912 41.401001000000000829 41.271999333333333482 41.211000750000003734 41.033666000000003748 41.111999333333329787 41.017332666666668217 40.664750999999995429 40.187200199999992378 39.657501500000002181 39.715000250000002779 39.41620039999999392 39.480999000000004173 39.786665333333338879 39.98575050000000175 40.273666333333331124 40.578000666666667939 40.789333333333331666 40.773333333333333428 40.776599599999997281 40.706001499999999282 40.700500500000003967 40.690667333333330191 40.645999000000003321 40.607001000000003899 40.555999999999997385 40.509199399999999969 40.441665666666665402 40.374666999999995198 40.318333666666667625 40.281000500000004649 40.331250499999995895 40.639499499999999443 41.125333333333330188 41.319499999999997897 41.030500249999995788 40.56200033333333721 40.522667000000005544 40.713501000000000829 40.928000500000003115 40.634749499999998079 40.598667333333338547 40.297000666666669133 39.98433333333333195 39.837000000000003297 39.731668000000006202 39.648001000000000715 39.584333000000000879 39.525000333333331071 39.486000166666670452 39.436800399999995648 39.392399599999997406 39.357167000000004009 39.333249000000002127 39.289499249999998653 39.254500499999998908 39.225332666666666626 39.21275049999999851 39.186750500000002262 39.130583749999999554 39.097666333333336297 39.060624125000003914 39.039399799999998208 38.986999666666669384 38.949500249999999824 38.92499933333333928 38.882667666666669959 38.817250250000000733 38.781124375000004534 38.772249999999999659 38.741666000000002157 38.720666333333333853 38.777400200000002428 38.605000375000003032 38.516666333333333228 38.478666999999994403 38.605750249999999824 38.73500066666667152 38.951333333333337805 39.774000166666667155 38.876666999999997643 38.732334333333334087 38.727001000000001341 38.653199799999995889 38.566800000000000637 38.457999999999998408 38.509999666666665519 38.44033333333333502 38.2765088083795888 37.986756776644497791 37.693565350595235941 37.396934530183614243 37.096864315360427611 NaN NaN NaN NaN NaN NaN NaN NaN NaN NaN NaN NaN NaN NaN NaN NaN NaN NaN NaN NaN NaN NaN NaN NaN NaN NaN NaN
38.200310840684700509 38.388638485279869883 38.630618855714658366 38.926251951841919663 39.275537773750428983 39.678476321428270523 40.135067594961562065 40.645311594176980918 41.209208319168162404 41.826757769928683217 41.638000666666670213 41.657666333333331465 41.603998999999994624 41.555333666666662396 41.549332999999997185 41.452500249999999937 41.393499000000005594 41.323249750000002223 41.225250500000001352 41.093999999999994088 41.230400600000002953 41.238334666666666806 40.739499999999999602 40.635500000000000398 40.438500500000003512 39.337999249999995754 39.500499750000003019 39.448749499999998136 39.648333000000000936 39.895499999999998408 40.164599599999995405 40.468001000000001 40.716999999999998749 40.830249999999999488 40.793498999999997068 40.776750499999998567 40.746001333333332184 40.695499499999996829 40.672001000000001625 40.634751500000000135 40.592666666666666231 40.551498499999993896 40.485199600000001396 40.390999000000000763 40.366750750000001347 40.289667666666666435 40.233001999999999043 40.272998999999998659 40.535999333333329275 40.950600399999999013 41.214000999999996111 41.258666999999995539 40.881667000000000201 40.722750750000002995 40.631333666666670013 40.594499499999997738 40.623332666666669866 40.334250499999996009 40.257999333333337688 40.030667666666666094 39.820750250000003234 39.67900066666666703 39.558499999999995111 39.506250500000000159 39.503749749999997221 39.447599799999998993 39.403798600000001784 39.351599799999995355 39.326749749999997618 39.302000400000004277 39.286800600000006511 39.238333499999988874 39.211333000000003324 39.184000333333329991 39.16633333333333411 39.106000799999996786 39.056248750000001735 39.041000333333336414 39.006751000000001284 38.950905119047618541 38.907572000000001822 38.88274950000000274 38.865000333333334481 38.819666333333337604 38.764799399999994023 38.755749749999999665 38.700333166666666784 38.67499933333333928 38.636000666666660663 38.540499625000002482 38.47760080000000471 38.534333666666668705 38.661332333333326972 38.791999750000002223 39.501999600000004875 39.256999750000005633 38.79250074999999498 38.722000250000000676 38.663499749999999722 38.605001500000000192 38.530667666666666094 38.472250999999999976 39.023997999999998854 38.351000166668796965 38.10803193020660018 37.820254309881583765 37.529037295145947439 37.234380886095962637 NaN NaN NaN NaN NaN NaN NaN NaN NaN NaN NaN NaN NaN NaN NaN NaN NaN NaN NaN NaN NaN NaN NaN NaN NaN NaN NaN NaN
38.846077195778462965 38.999671465334301956 39.206918460621530187 39.46781818167810485 39.7823706284923162 40.150575801163810752 40.572433699533718254 41.047944323672957978 41.577107673575348201 41.715820625064949922 41.657499000000001388 41.669667666666661887 41.609498500000000831 41.542000000000001592 41.511666666666663161 41.450001000000000317 41.420665666666671711 41.266999999999995907 41.261499500072176261 41.126000666666662653 41.095999749999997164 40.965000333333335902 40.507500749999998391 40.464000999999996111 40.335000333333333344 39.386999666666667963 39.43200000000000216 39.334500500000004308 39.784748750000005657 40.075500499973927049 40.349997999999999365 40.5763333333333307 40.838666333333335956 40.796001333333329342 40.814999666666665235 40.72800099999999901 40.709000000000003183 40.703000333333335448 40.657800999999992086 40.608666666666664469 40.569000000000002615 40.544750000000000512 40.484999750000000063 40.381500500000001352 40.304999999999999716 40.237751250000002301 40.198000000000000398 40.20350075000000345 40.416399400000003084 40.749666666666662707 41.002999666666660517 41.146001333333330763 40.728666666666661911 40.563499499999998932 40.605667000000003952 40.382334333333332665 40.371665666666665118 40.098499500000002627 40.006668333333330168 39.927499999999994884 39.8086673333333394 39.64266699999999588 39.568998999999998034 39.506000666666665211 39.466667333333333545 39.443001000000002421 39.338748999999999967 39.332250750000000039 39.312571428571423837 39.26233200000024226 39.270999750000001427 39.204000333333333117 39.179500499999996066 39.135332666666663215 39.129300299999997037 39.078857428571431853 39.049500500000000613 38.997750249999995731 38.971332666666661737 38.921998999999999569 38.895251250020344003 38.855333999999999151 38.842999500000004787 38.76166633333333067 38.753999000000000308 38.698333999999995569 38.659666666666659296 38.611000333333329593 38.546666666666666856 38.504900700017785198 38.514599599999996826 38.673750750021419265 38.807300499999996646 39.215749500000001149 39.519249999999999545 38.899201399999995488 38.730667000000003952 38.682749749999999267 38.58849974999999688 38.54333249999999822 38.466001500000004398 38.741333166666663601 38.365666666666669471 38.225358261044497965 37.942994446396426156 37.657191237433046638 37.36794863405949485 37.075266636371139839 NaN NaN NaN NaN NaN NaN NaN NaN NaN NaN NaN NaN NaN NaN NaN NaN NaN NaN NaN NaN NaN NaN NaN NaN NaN NaN NaN NaN
39.43819082513564922 39.557051719570935688 39.729565339758607934 39.955731685733951508 40.235550757542284828 40.569022555047425271 40.95614707833609458 41.39692432739409611 41.891354302300925383 41.727998999999996954 41.669999333333329616 41.61299900000000207 41.569999666666667792 41.558500000000002217 41.508499000000000478 41.450667000000002815 41.400499249999995754 41.334000000000003183 41.383749999999999147 41.457667000235012722 41.126500000000000057 40.821601000000001136 40.345000499999997601 40.330999666666663472 40.038748499999996966 39.532499000000001388 39.606501000000001511 39.69433199999999573 39.939999600000000157 40.217999999999996419 40.527667000000000996 40.749333666600847437 40.821999750007449848 40.838665999999996359 40.79399999999999693 40.750666000000002498 40.708249000000002127 40.673499999999997101 40.635000500000003854 40.620429571428573468 40.596000166666662778 40.534497999999999251 40.45000066666666072 40.394399800000002188 40.326999500019553579 40.24025075000000129 40.166748999999995817 40.163249999999997897 40.277249999999995111 40.595500999999998726 40.775001500000001897 40.8597494999999995 40.498599400000003357 40.344332333333333906 40.295999499999993532 40.164333333329757636 40.070665666666663185 39.987667333333341446 39.779001000000000943 39.778666000000001191 39.684199599999999464 39.636665333333333194 39.512999000000000649 39.448667999999997846 39.433665999999995222 39.409799599999999486 39.344499750000004212 39.303599599999998304 39.260500000000000398 39.280000200000003474 39.20699975000000137 39.168999499999998193 39.147999500000004502 39.119501499999998373 39.076000000000000512 39.053667666666662228 39.002997999999998058 38.957599800000004109 38.929800399999997751 38.892333999999998184 38.885749750000002223 38.832000999991933554 38.80074975000000137 38.746500000000004604 38.707250750000000039 38.639000000000002899 38.599001000000001227 38.564749750000004269 38.480499999999999261 38.503499761904762977 38.634142142857136548 38.796167000000004066 39.064000666461154765 39.622999999969074736 39.233499499999993532 38.801750249999997777 38.693001000000002421 38.65066666666666606 38.497749249999998256 38.442399600000001669 38.616332999999997355 38.575499499999999387 38.326833774999997217 38.06178576023506821 37.781396356995934127 37.497567559347324107 37.21029936738321453 NaN NaN NaN NaN NaN NaN NaN NaN NaN NaN NaN NaN NaN NaN NaN NaN NaN NaN NaN NaN NaN NaN NaN NaN NaN NaN NaN NaN NaN
39.976651728667917496 40.060779248021972876 40.198559493145367583 40.389992464072449252 40.635078160739851683 40.933816583176579229 41.286207731368676832 41.69225160541371622 41.77537443751442936 41.69899949999999933 41.675249999999998352 41.600334333376167706 41.597000250000000676 41.583332999999996105 41.522666999999998438 41.469999999999998863 41.347749000000000308 41.388998999999998318 41.64059999999999917 41.351832166666660839 40.888666999999998097 40.869500500000000898 40.340250999999994974 39.745001000000002023 39.523200200000005111 39.396667666666665752 39.522334000000000742 39.850998750000002246 40.088400399999997603 40.373998499999999012 40.654248999999992975 40.786250249999994821 40.812000499998134728 40.815999499999996658 40.763998666666658721 40.713000000000000966 40.686999249999999506 40.633333999999997843 40.61466733333332968 40.552666999999999575 40.548499999999997101 40.467500999999998612 40.417665999999996984 40.373667666661695819 40.301250250000002495 40.224498499999995715 40.192333333358781999 40.105667333333336444 40.200332666666660941 40.337499999999998579 40.448750500003576747 40.330332333333331007 40.268666333333328566 40.232332666666664522 40.083999666666670691 40.091667333333333545 39.938000000000002387 39.891333333333335531 39.728335333333340884 39.676999333333334619 39.623666000022979006 39.562666666666665094 39.475665999999996814 39.423999666666666997 39.444333333333332803 39.38099950000000149 39.342000249999998118 39.303399600001583281 39.268999200000003214 39.237498999999999683 39.188500500000003512 39.167250749985569769 39.095750000000002444 39.087249749999998016 39.056332999989315624 39.013000333333330616 38.977200400000000968 38.925571714285716496 38.876998999991144501 38.877749500000000182 38.873000000000004661 38.816750500033059268 38.786999999981212284 38.716334000000010462 38.644332666666663556 38.620333333333334735 38.558250499999999761 38.514500749999996287 38.48199920000000418 38.615975075000001482 38.757250749999997197 38.875666333333327884 39.562666666666665094 39.188999000000002582 38.800000000000004263 38.753750999999994065 38.673500000045017089 38.592000500000004592 38.52979979999999216 38.43949974999999597 39.028333333333335986 38.34825125000000412 38.176628251349505661 37.901652653788453051 37.623237661910948759 37.341383275624423277 37.056089495021943492 NaN NaN NaN NaN NaN NaN NaN NaN NaN NaN NaN NaN NaN NaN NaN NaN NaN NaN NaN NaN NaN NaN NaN NaN NaN NaN NaN NaN NaN
40.461459906430398803 40.5108540507032302 40.613900920786605298 40.770600516602065966 40.980952838167617358 41.244957885523128027 41.562615658704999078 41.933926157588004457 41.787999999999996703 41.729999499999998136 41.758998500000004128 41.621999500000001149 41.607999500000005355 41.589001000028552824 41.523998999999996329 41.419799799999999834 41.309333666666667284 41.400799399999996808 40.920143142857149599 40.765999000000000763 40.046999666666664552 40.82400149999999428 40.355000199999999211 39.548249249999997801 39.369999000032287029 39.35899966666666927 39.719000333333333685 40.020000500000001864 40.268501000000000545 40.508749999999999147 40.785333000000001391 40.812749749999994719 40.833500999999998271 40.776500750007457441 40.736749500000001944 40.733249750000005918 40.672000999999994519 40.636000000000002785 40.569000000000002615 40.559499500000001149 40.482334333333334087 40.401750249999999198 40.390399600000002067 40.325001000000000317 40.261001999999997736 40.212999500000002229 40.138750000000001705 40.085500750000001347 40.051999999999999602 40.135667333333337581 40.161000333333333856 40.099999666666668929 39.982332666666664522 40.103334000006576332 39.969333666666663873 39.865664999999999907 39.867333666666667114 39.754333333333327971 39.702501249999997412 39.582332666666665943 39.585666666666668334 39.553999000000004571 39.465000000000003411 39.433332999999997526 39.40540099999999768 39.359334333333329425 39.340668000000000859 39.254333666666660463 39.238800799999999924 39.214333333333335929 39.183749249999998199 39.163998999999996897 39.094600800000002039 39.071000333333337551 39.008751000000003728 38.97649950000000274 38.934332666666669809 38.89449975000000137 38.868750749999996685 38.833000000020952314 38.822499249999999904 38.769249999999999545 38.743334666671167099 38.672500499999998169 38.626500249999999426 38.556250499999997317 38.477249499999999216 38.460000249999993116 38.590750749949862097 38.737124708332515866 38.890665333333330977 39.265001000000005149 39.621251000000000886 39.078000666666667939 38.737999750000000176 38.678999200000006908 38.59975075002188305 38.553001000000001852 38.470666333333333853 38.876500999725259078 38.385500000000000398 38.287521919694533779 38.017960127903634771 37.744958941750375914 37.468518361188785093 37.188638386310557848 NaN NaN NaN NaN NaN NaN NaN NaN NaN NaN NaN NaN NaN NaN NaN NaN NaN NaN NaN NaN NaN NaN NaN NaN NaN NaN NaN NaN NaN NaN
40.89261535845033535 40.907276127644678354 40.975589622609575713 41.097555843343798188 41.2731747898473742 41.502446462145677231 41.785370860193246756 41.82297219285988632 41.815500000000000114 41.746332666666667421 41.69925024999999863 41.647498999999996272 41.615000333333334481 41.604400599999998178 41.562334666666664873 41.425200000000003797 41.236000000021881817 41.331249249995806849 41.095249999999992951 40.743667666666659954 40.342250000019092226 40.314666666666660433 39.842499750000001768 39.381666666666660603 39.338666333333328851 39.581000499999994702 39.882750749999999584 40.172498500000003219 40.42749874999999804 40.687999749999995913 40.80599899999999991 40.832000999999998214 40.846667333333336103 40.750750749999994582 40.717332333333331462 40.696000999999995429 40.624000999999999806 40.603399000000003127 40.532800000000001717 40.486667666666669163 40.404500999999996225 40.390998500000002025 40.298000333333327205 40.299331666666667218 40.21100049999999726 40.174498749999997926 40.108000333333336584 40.068667333333330305 40.010665666666668017 39.996000250000001586 39.987600600000000384 39.912001333333329001 39.811249750000001768 39.981500500000002774 39.966000750000006292 39.792332999999999288 39.771599399999999491 39.748332999999995252 39.661333666666671149 39.600399800000005257 39.530332999999998833 39.47900000000000631 39.437250249999998175 39.411249999999995453 39.378667333333332579 39.322666000000005226 39.292332666666666796 39.241332999994725128 39.24000199999999694 39.188249500009469273 39.152251000000006798 39.151333999999998525 39.076600599999991914 39.019749750000002564 39.008832833333336509 38.960800200000001325 38.899999499999999841 38.844000333333333685 38.834333999999998355 38.786799399999992488 38.743499999999997385 38.731500500000002774 38.701666666666667993 38.642133933333333573 38.584249499999998534 38.506399599999994621 38.46966666666666157 38.581999999999993634 38.719666999999994061 38.848799999999997112 39.039800200000001951 39.73050024999999863 38.861499999999999488 38.728333999999996706 38.700500500000003967 38.694000250000001984 38.543250249999999824 38.506000499999998965 38.739999999999994884 38.63675024999999863 38.389333000000000595 38.130318779294604781 37.862731398820578477 37.591704624028949411 37.317238454829443128 37.039332891312838569 NaN NaN NaN NaN NaN NaN NaN NaN NaN NaN NaN NaN NaN NaN NaN NaN NaN NaN NaN NaN NaN NaN NaN NaN NaN NaN NaN NaN NaN NaN
41.27011808469453058 41.250045478807479071 41.283625598662737843 41.370858444315736335 41.511744015772663374 41.706282312968291137 41.954473335911707466 41.81766633333333516 41.792333000000006393 41.777750249999996868 41.711500249999993173 41.696333666666667739 41.648749000000002241 41.578599600000003988 41.528499750000001711 41.363999499999998477 41.285998999999996784 41.273000333333328626 40.940249500000000182 40.706749999999999545 40.271249749999995515 40.27816716666666963 39.565833166666671161 39.416333666666666602 39.320250749999999584 39.780500500000002262 40.050999750000002564 40.303666333333332261 40.590500000000005798 40.762334333333335223 40.804000000000002046 40.821500749999998447 40.778499500000002342 40.743666333333329987 40.681500999999997248 40.653999499999997624 40.578666666666663332 40.531665666666668812 40.504998999999997977 40.455501499999996895 40.41233299999999673 40.334000000000003183 40.296998999999999569 40.223499000000003889 40.186665999999995336 40.143000250000000051 40.111000000000004206 40.055999666666671999 40.02199900000000099 40.012250000000001648 39.903332999999996389 39.869999499999998704 39.806333999999999662 39.873000999999995031 39.896600399999996966 39.765000999999990938 39.682000999999999635 39.667001333333331559 39.625664666666665426 39.599997999999999365 39.518333000000005484 39.479000333333331696 39.442000249999999539 39.409333333333329108 39.356333666666664328 39.298000000000001819 39.286599799999997629 39.246600399999998388 39.205000666666670384 39.185199599999997133 39.131749249999998597 39.083750750000000096 39.056998999999997579 39.001000399999995238 38.941000000000002501 38.900998333333326684 38.857000799999994456 38.819000000000002615 38.798333333333332007 38.760799200000001008 38.725625999999998328 38.693285571428567948 38.658748750000000882 38.582042000000001281 38.522998666666666168 38.48833366666666933 38.570933099999997751 38.705666999999998268 38.812667666666662569 39.052998999999999796 39.681200400000001594 39.022199999999997999 38.754500249999999539 38.734251000000000431 38.681208374999997091 38.528998999999998887 38.493800400000004913 38.481000000000001648 39.087599999999994793 38.348998749999999802 38.238728607917323643 37.976555033212292756 37.710942064100343885 37.44188970067034461 37.169397942877999697 NaN NaN NaN NaN NaN NaN NaN NaN NaN NaN NaN NaN NaN NaN NaN NaN NaN NaN NaN NaN NaN NaN NaN NaN NaN NaN NaN NaN NaN NaN NaN
41.593968085142890345 41.539162104174614853 41.538008848975671583 41.590508319541243054 41.696660515886307508 41.856465438000711288 41.89399966666666586 41.85149950000000274 41.847333666666663987 41.807599599999996087 41.741666000000002157 41.743000000000002103 41.657500249999998232 41.618000000000002103 41.461500000000000909 41.284857142857148915 41.371999500000001149 40.977400400000007608 40.843333000000001221 40.548331999999994935 40.173333333333332007 40.134666333333335331 39.509000333333339938 39.396166000000000906 39.655999800000003574 39.965000000000003411 40.190499250000002007 40.452001499999994394 40.717333333333328937 40.768749249999999051 40.838498999999998773 40.800998999999997352 40.749000500000001068 40.707500499999994759 40.679999000000002241 40.604249750000001029 40.548499999999997101 40.490333666666664669 40.436751250000000368 40.411248999999997977 40.360750249999995276 40.309499750000000518 40.248333000000002357 40.212000750000001403 40.160499500000000239 40.093801199999994367 40.076000000000000512 40.022599800000001835 39.997499500000003536 39.931998999999997579 39.885499999999993292 39.878000000000000114 39.817501000000000033 39.775399799999995309 39.795999499999993532 39.747499500000003536 39.643998999999993771 39.627999666666667622 39.587332666666668501 39.596999999999994202 39.538000666666668792 39.45933400000000546 39.419999333333329616 39.375667666666664957 39.3330003333333309 39.273749999999999716 39.271250750000000096 39.247332000000000107 39.21074974999999796 39.16633333333333411 39.107999999999996987 39.053999500000003309 39.020400200000004531 38.946000249999997322 38.905000000000001137 38.869832999999999856 38.816499000000000308 38.814000333333332549 38.746250249999995674 38.717600199999999688 38.69950099999999793 38.62920079999999956 38.580249750000007225 38.528124916666669719 38.519999333333323932 38.646499749999996709 38.703999199999998382 38.833199399999998036 38.926666333333336922 39.523999714285714902 39.416000333333329309 38.83975149999999843 38.737999799999997208 38.696500000000000341 38.576499999999995794 38.510332666666663215 38.513333666666660804 39.060749000000001274 38.41424924999999746 38.341833000000001164 38.086429844879802431 37.826230681492802432 37.562592123787055698 37.29551417167456151 37.024996825243846388 NaN NaN NaN NaN NaN NaN NaN NaN NaN NaN NaN NaN NaN NaN NaN NaN NaN NaN NaN NaN NaN NaN NaN NaN NaN NaN NaN NaN NaN NaN NaN
41.841367095874488768 41.774626003771956562 41.738739373503918273 41.756505468997048069 41.827924290230178883 41.952995837263337364 41.904999749999994663 41.904332333383891296 41.839000666666663619 41.831333333333333258 41.853665666666671541 41.770249249999999108 41.71600000000000108 41.626499499987168917 41.484500999999994519 41.491248749999996903 41.515499500000004218 40.868666166323954769 41.006000333333332719 40.697000499801589513 40.621000499788628701 40.16239980000000287 39.863199599680740448 39.555000000263547122 39.819666333333330499 40.070000999930805108 40.367000749999995435 40.682666999977435296 40.799666999926337496 40.824333333333335361 40.784000500059086392 40.747750250000002836 40.708000250000004883 40.671664999999997292 40.608000333366604195 40.564999999999997726 40.524334000000003186 40.442001000102088426 40.40025049999999851 40.469999999999998863 40.348500999999998839 40.264499499999999443 40.237667333317347129 40.196601000000001136 40.147998999999998659 40.111333333333334394 40.054332666666667251 40.010332666667281387 39.970999000003125445 39.900999400000003448 39.865999666686875003 39.801750249999997777 39.765249250001261316 39.723999000029607487 39.721249750039802962 39.667999333394931227 39.635499000028744376 39.56099933333333496 39.576000000000007617 39.518249500047780032 39.483000000030166632 39.41799949997118091 39.392000999963862284 39.368999500000001035 39.315750250000000676 39.281001000011144697 39.241666000000002157 39.218250250005347368 39.181249750000006316 39.127501333333334799 39.082499499999997283 39.020666999999995994 38.954666333382263588 38.908249499999996601 38.845001000000003444 38.808500250000001586 38.791333333347594703 38.760999749999996311 38.711333000000003324 38.676333333333332121 38.633998666666663269 38.594333666662599569 38.577500499960216018 38.613001666666669109 38.702801599905427565 38.778416749999998103 38.872666666666667368 38.901998999999996443 39.446666666082364827 39.554499750878505893 38.934249749999999324 38.755999500008122993 38.700751500000002636 38.666332000000004143 38.587333666749053407 38.48649949996424624 38.725667333135042725 38.719399800505790665 38.33740077780551303 38.192355833780197827 37.937570476161049271 37.6793457241361196 37.417681577791995551 37.152578037041593007 NaN NaN NaN NaN NaN NaN NaN NaN NaN NaN NaN NaN NaN NaN NaN NaN NaN NaN NaN NaN NaN NaN NaN NaN NaN NaN NaN NaN NaN NaN NaN NaN
